ply
format ascii 1.0
element vertex 1313
property float x
property float y
property float z
property uchar red
property uchar green
property uchar blue
end_header
4.19978 0.69087 20.7591 193 193 193
4.19734 0.690767 20.7465 191 191 191
4.19964 0.708158 20.7579 177 177 177
4.19605 0.736935 20.769 204 204 204
4.20706 0.955587 20.7906 219 219 219
4.20683 0.972552 20.7894 211 211 211
4.20161 0.982751 20.7634 211 211 211
4.20721 0.996957 20.7618 210 210 210
4.21023 1.0164 20.7473 209 209 209
4.20365 1.02903 20.7727 206 206 206
4.20327 1.06328 20.7702 200 200 200
4.20891 1.07471 20.7689 185 185 185
4.20025 1.10236 20.7547 186 186 186
4.20254 1.12587 20.7656 194 194 194
4.20487 1.14663 20.7768 191 191 191
4.2047 1.16082 20.7758 185 185 185
4.20927 1.19299 20.7687 194 194 194
4.20997 1.20649 20.7719 212 212 212
4.20962 1.23796 20.7697 190 190 190
4.21152 1.2776 20.7493 203 203 203
4.20899 1.29189 20.7656 189 189 189
4.20631 1.3025 20.7522 191 191 191
4.20455 1.32481 20.7722 203 203 203
4.20848 1.33752 20.7623 204 204 204
4.20512 1.34975 20.7746 200 200 200
4.212 1.42082 20.8074 187 187 187
4.21715 2.344 20.8138 215 215 215
4.2169 2.36961 20.8117 223 223 223
4.22365 2.52234 20.8119 178 178 178
4.2292 2.54235 20.8099 175 175 175
4.22224 2.59136 20.8329 168 168 168
4.1838 -0.625743 20.6997 210 210 210
4.20423 0.754759 20.7798 218 218 218
4.22875 2.3466 20.8122 231 231 231
4.17306 -3.76271 20.0821 201 201 201
4.15824 -3.54786 20.2402 188 188 188
4.17293 -4.04365 19.7451 114 114 114
4.17113 -3.44966 20.222 191 191 191
4.16353 -3.32734 20.3236 176 176 176
4.16301 -2.48125 20.5582 184 184 184
4.16558 -2.46532 20.5688 185 185 185
4.16515 -2.44856 20.5684 178 178 178
4.16507 -2.42854 20.5668 178 178 178
4.16131 -2.24435 20.6059 189 189 189
4.16619 -2.23547 20.6299 190 190 190
4.16608 -2.22408 20.6292 190 190 190
4.16585 -2.20132 20.6277 192 192 192
4.16573 -2.18993 20.627 190 190 190
4.16547 -2.17583 20.6263 199 199 199
4.16528 -2.14441 20.624 204 204 204
4.16755 -2.12284 20.6349 198 198 198
4.16767 -2.13422 20.6357 190 190 190
4.1736 -2.10315 20.6086 205 205 205
4.16943 -2.08441 20.6453 222 222 222
4.17243 -2.06023 20.6309 220 220 220
4.1724 -2.04588 20.6297 222 222 222
4.16887 -2.02747 20.6416 182 182 182
4.17082 -1.73953 20.6478 193 193 193
4.17715 -1.72578 20.6213 188 188 188
4.1754 -1.64281 20.6415 185 185 185
4.18069 -1.59708 20.6379 188 188 188
4.18058 -1.58571 20.6372 200 200 200
4.18047 -1.57434 20.6364 196 196 196
4.1762 -1.54321 20.6725 187 187 187
4.18207 -1.50148 20.6444 192 192 192
4.18174 -1.46736 20.6421 197 197 197
4.18414 -1.45678 20.6538 194 194 194
4.18392 -1.43403 20.6523 193 193 193
4.18312 -1.37168 20.6485 201 201 201
4.18941 -1.00464 20.6738 200 200 200
4.18953 -1.01602 20.6746 194 194 194
4.18919 -0.981872 20.6723 199 199 199
4.19312 -0.886272 20.691 191 191 191
4.19279 -0.852102 20.6887 181 181 181
4.19267 -0.840714 20.6879 188 188 188
4.19387 -0.721725 20.6926 201 201 201
4.19375 -0.710335 20.6918 195 195 195
4.19353 -0.687557 20.6902 208 208 208
4.19341 -0.67617 20.6895 210 210 210
4.19582 -0.66512 20.7011 204 204 204
4.19529 -0.625432 20.6987 196 196 196
4.20001 -0.591851 20.7214 204 204 204
4.19874 -0.466441 20.7127 200 200 200
4.19845 -0.449528 20.7118 195 195 195
4.1984 -0.43225 20.7104 199 199 199
4.19828 -0.420854 20.7096 194 194 194
4.19816 -0.409458 20.7088 206 206 206
4.19781 -0.375275 20.7065 203 203 203
4.20154 -0.256054 20.7235 200 200 200
4.19996 -0.113752 20.7138 202 202 202
4.1996 -0.0795689 20.7114 194 194 194
4.20384 -0.0142537 20.7322 201 201 201
4.20368 0.00578933 20.7307 214 214 214
4.20356 0.017192 20.7299 215 215 215
4.20348 0.0344689 20.7285 191 191 191
4.20816 0.0629585 20.7518 191 191 191
4.20598 0.268312 20.7374 204 204 204
4.20579 0.282481 20.7365 201 201 201
4.21007 0.354152 20.7566 193 193 193
4.2155 0.439112 20.7246 190 190 190
4.21514 0.64531 20.7481 202 202 202
4.21811 0.661874 20.7339 197 197 197
4.21477 0.67365 20.7462 214 214 214
4.22285 0.691078 20.757 199 199 199
4.21118 0.708261 20.7568 192 192 192
4.22161 0.972034 20.7752 207 207 207
4.2247 0.982867 20.7613 232 232 232
4.2181 1.00134 20.7863 210 210 210
4.22401 1.04266 20.7569 198 198 198
4.2238 1.06271 20.7555 191 191 191
4.22367 1.07411 20.7547 202 202 202
4.22299 1.13076 20.7504 184 184 184
4.21881 1.16156 20.7873 184 184 184
4.22729 1.20652 20.7703 190 190 190
4.22694 1.23798 20.768 183 183 183
4.226 1.3206 20.762 211 211 211
4.22839 1.33558 20.7735 202 202 202
4.22823 1.34975 20.7724 192 192 192
4.22716 1.36861 20.7669 198 198 198
4.22383 1.39795 20.8079 197 197 197
4.22689 1.41146 20.7938 191 191 191
4.24086 2.29522 20.8153 190 190 190
4.24023 2.35237 20.8109 218 218 218
4.2423 2.39951 20.82 183 183 183
4.24437 2.45771 20.8277 174 174 174
4.24155 2.4736 20.8141 176 176 176
4.24363 2.52357 20.8228 178 178 178
4.24338 2.54369 20.8214 178 178 178
4.2432 2.56359 20.8197 182 182 182
4.24277 2.60635 20.8162 168 168 168
4.23277 3.29418 21.4057 121 121 121
4.17685 -2.15526 20.6238 194 194 194
4.19549 -1.44497 20.652 207 207 207
4.19075 -1.14127 20.683 195 195 195
4.201 -1.01565 20.6736 185 185 185
4.208 -0.733164 20.7048 191 191 191
4.20674 -0.607848 20.6962 196 196 196
4.21024 -0.466154 20.7117 199 199 199
4.21013 -0.454758 20.7109 201 201 201
4.21292 -0.2444 20.7217 188 188 188
4.21784 0.228402 20.7393 211 211 211
4.21772 0.239806 20.7385 204 204 204
4.23636 0.971517 20.761 216 216 216
4.23883 1.20654 20.7692 184 184 184
4.24212 1.37064 20.7824 195 195 195
4.24186 1.39347 20.7808 208 208 208
4.24164 1.41353 20.7794 204 204 204
4.24118 1.45329 20.7763 176 176 176
4.25269 2.27772 20.8151 235 235 235
4.2593 2.63216 20.8385 147 147 147
4.24491 3.26753 21.4067 171 171 171
4.24469 3.29107 21.4048 164 164 164
4.19215 -3.63591 20.121 190 190 190
4.19028 -3.61103 20.1675 164 164 164
4.18633 -2.86383 20.4427 135 135 135
4.1847 -2.75406 20.4368 170 170 170
4.19068 -2.53743 20.5217 187 187 187
4.19306 -2.5275 20.5332 184 184 184
4.192 -2.49656 20.5562 176 176 176
4.18778 -2.4247 20.5649 185 185 185
4.18719 -2.36794 20.5613 192 192 192
4.19167 -2.34243 20.5847 178 178 178
4.19244 -2.24423 20.6158 178 178 178
4.19119 -2.22 20.6183 198 198 198
4.19356 -2.17989 20.6491 190 190 190
4.1907 -2.14453 20.6344 187 187 187
4.19546 -2.07055 20.6296 206 206 206
4.19213 -2.06058 20.6418 213 213 213
4.19512 -2.03643 20.6274 222 222 222
4.19478 -2.00231 20.6252 210 210 210
4.19112 -1.95816 20.6351 184 184 184
4.20243 -1.80322 20.6329 199 199 199
4.20039 -1.75892 20.6215 191 191 191
4.20268 -1.73714 20.6324 188 188 188
4.20487 -1.70397 20.6426 187 187 187
4.19938 -1.56509 20.672 196 196 196
4.20729 -1.47866 20.6533 188 188 188
4.20718 -1.46728 20.6525 186 186 186
4.20684 -1.43316 20.6502 193 193 193
4.20651 -1.39904 20.648 193 193 193
4.20606 -1.35356 20.6449 200 200 200
4.20824 -1.33744 20.6567 212 212 212
4.20415 -1.29994 20.6919 206 206 206
4.20701 -1.28216 20.6782 204 204 204
4.20633 -1.23113 20.6752 201 201 201
4.21152 -1.15674 20.6693 202 202 202
4.21972 -0.755623 20.7053 191 191 191
4.21903 -0.687265 20.7006 195 195 195
4.2188 -0.664483 20.6991 209 209 209
4.22466 -0.623868 20.6707 214 214 214
4.21444 -0.55103 20.7043 215 215 215
4.22208 -0.500052 20.713 210 210 210
4.21556 -0.489422 20.7383 194 194 194
4.22813 -0.465131 20.6847 217 217 217
4.22165 -0.451531 20.7095 208 208 208
4.21631 -0.431277 20.6834 218 218 218
4.22109 -0.414779 20.7074 210 210 210
4.22466 -0.266943 20.7222 210 210 210
4.22638 -0.187229 20.7292 187 187 187
4.23526 0.0346813 20.7132 205 205 205
4.23517 0.0519406 20.7119 213 213 213
4.2293 0.0632269 20.7116 204 204 204
4.23096 0.086186 20.7481 201 201 201
4.23511 0.228669 20.7377 230 230 230
4.23755 0.240253 20.7494 216 216 216
4.23541 0.268431 20.7092 213 213 213
4.24408 0.628316 20.7467 198 198 198
4.24641 0.64566 20.7581 198 198 198
4.24651 0.646007 20.758 192 192 192
4.24102 0.673485 20.731 200 200 200
4.24064 0.70766 20.7285 201 201 201
4.24308 0.71951 20.7402 201 201 201
4.24028 0.735962 20.7265 199 199 199
4.24042 0.897012 20.7533 209 209 209
4.23705 0.911713 20.7653 216 216 216
4.2452 0.926499 20.7763 210 210 210
4.24507 0.937913 20.7755 210 210 210
4.24776 0.98298 20.7591 195 195 195
4.24747 1.01167 20.7571 198 198 198
4.24696 1.05727 20.7538 186 186 186
4.24487 1.12806 20.8001 185 185 185
4.2496 1.27499 20.7631 187 187 187
4.25292 1.43597 20.7763 199 199 199
4.25273 1.45327 20.7752 197 197 197
4.24939 1.46558 20.7875 188 188 188
4.24599 1.4838 20.7995 191 191 191
4.2458 1.50075 20.7982 189 189 189
4.25063 1.53097 20.8211 196 196 196
4.26428 2.27757 20.8139 226 226 226
4.26724 2.29622 20.7993 200 200 200
4.26758 2.4546 20.8257 175 175 175
4.26943 2.52196 20.8334 177 177 177
4.26598 2.60596 20.8138 160 160 160
4.25667 3.29638 21.4025 97 97 97
4.23675 0.143161 20.718 214 214 214
4.24477 0.793907 20.7475 200 200 200
4.24889 0.8862 20.7661 207 207 207
4.24863 0.909017 20.7644 210 210 210
4.25684 1.54639 20.7936 191 191 191
4.25558 1.65741 20.7852 202 202 202
4.25968 1.75356 20.8033 202 202 202
4.25955 1.76498 20.8025 206 206 206
4.2589 1.82208 20.7982 207 207 207
4.25877 1.8335 20.7974 198 198 198
4.26254 0.804461 20.7195 195 195 195
4.26216 0.838607 20.717 198 198 198
4.27381 1.62976 20.7598 194 194 194
4.20765 -4.11284 19.7449 154 154 154
4.20789 -3.05234 20.3787 90 90 90
4.20787 -3.03809 20.3775 91 91 91
4.20607 -2.46621 20.5411 181 181 181
4.20747 -2.42535 20.5463 190 190 190
4.21057 -2.3949 20.5604 191 191 191
4.21003 -2.36681 20.5592 195 195 195
4.21045 -2.38356 20.5597 189 189 189
4.20709 -2.24216 20.6018 174 174 174
4.21178 -2.21052 20.6244 194 194 194
4.21167 -2.19914 20.6237 210 210 210
4.20823 -2.17787 20.6351 190 190 190
4.208 -2.15511 20.6336 197 197 197
4.21086 -2.11953 20.6185 189 189 189
4.2135 -2.13208 20.6316 186 186 186
4.20725 -2.10416 20.6309 194 194 194
4.21287 -2.09251 20.6296 191 191 191
4.21253 -2.05839 20.6274 192 192 192
4.20989 -2.04589 20.6143 200 200 200
4.22087 -1.99991 20.6102 185 185 185
4.21437 -1.99126 20.6353 211 211 211
4.21733 -1.96717 20.6209 203 203 203
4.2138 -1.93439 20.6316 216 216 216
4.21791 -1.86278 20.6521 199 199 199
4.21323 -1.87754 20.6278 202 202 202
4.21768 -1.84001 20.6506 193 193 193
4.21492 -1.81626 20.6367 187 187 187
4.21721 -1.80315 20.6484 193 193 193
4.217 -1.77174 20.6461 198 198 198
4.21689 -1.76037 20.6453 188 188 188
4.21908 -1.72719 20.6555 182 182 182
4.21886 -1.70443 20.654 190 190 190
4.21815 -1.65346 20.6511 200 200 200
4.21826 -1.66484 20.6519 198 198 198
4.21804 -1.64208 20.6503 188 188 188
4.22046 -1.6316 20.662 192 192 192
4.2177 -1.60796 20.6481 193 193 193
4.21942 -1.54647 20.6568 188 188 188
4.21875 -1.47822 20.6523 186 186 186
4.2214 -1.49041 20.6655 181 181 181
4.22106 -1.45626 20.6632 190 190 190
4.22269 -1.38327 20.6711 191 191 191
4.2227 -1.36598 20.6695 200 200 200
4.22235 -1.34913 20.6688 202 202 202
4.23383 -1.33142 20.6662 198 198 198
4.2284 -1.31315 20.6407 191 191 191
4.22683 -1.29544 20.6603 204 204 204
4.22741 -1.28064 20.6637 208 208 208
4.2305 -1.25974 20.6492 196 196 196
4.22372 -1.23032 20.6732 210 210 210
4.22582 -1.21035 20.655 212 212 212
4.22597 -1.20251 20.6838 217 217 217
4.22905 -1.19028 20.6701 209 209 209
4.22564 -1.16835 20.6815 202 202 202
4.22871 -1.15615 20.6678 198 198 198
4.23016 -1.11262 20.7025 191 191 191
4.23123 -1.08712 20.6502 191 191 191
4.23069 -1.09986 20.6764 192 192 192
4.23517 -0.817165 20.6952 190 190 190
4.23141 -0.760792 20.7043 194 194 194
4.23736 -0.731422 20.6767 195 195 195
4.23405 -0.72058 20.689 192 192 192
4.23968 -0.709033 20.6877 193 193 193
4.23934 -0.674888 20.6853 198 198 198
4.2391 -0.652128 20.6838 199 199 199
4.24177 -0.663845 20.697 200 200 200
4.24098 -0.592782 20.6923 215 215 215
4.23742 -0.550427 20.7022 231 231 231
4.23065 -0.537265 20.6978 220 220 220
4.23698 -0.513509 20.6998 211 211 211
4.24507 -0.499464 20.7109 211 211 211
4.24436 -0.431119 20.7062 196 196 196
4.24718 -0.220853 20.7169 191 191 191
4.2358 -0.232498 20.7188 191 191 191
4.24706 -0.20946 20.7161 196 196 196
4.24546 -0.0672754 20.7065 193 193 193
4.24774 -0.0503587 20.7179 198 198 198
4.24754 -0.0217038 20.7158 201 201 201
4.24958 0.0180375 20.7257 192 192 192
4.24922 0.0522207 20.7233 206 206 206
4.25138 0.0951301 20.7327 211 211 211
4.25118 0.10929 20.7318 205 205 205
4.24849 0.120573 20.7185 211 211 211
4.2508 0.140543 20.7297 220 220 220
4.24781 0.180278 20.7144 214 214 214
4.25344 0.191756 20.7131 209 209 209
4.25252 0.223411 20.7363 211 211 211
4.25203 0.269001 20.7331 200 200 200
4.25178 0.291793 20.7315 190 190 190
4.25359 0.354536 20.7398 193 193 193
4.25515 0.44014 20.7464 185 185 185
4.25491 0.468816 20.7442 186 186 186
4.25793 0.64577 20.7569 194 194 194
4.25767 0.674457 20.7549 187 187 187
4.25743 0.691387 20.7537 191 191 191
4.25729 0.708666 20.7525 187 187 187
4.25973 0.720528 20.7642 193 193 193
4.25949 0.740404 20.7628 199 199 199
4.25935 0.754751 20.7618 197 197 197
4.26144 0.794999 20.7715 193 193 193
4.26116 0.823701 20.7694 201 201 201
4.2608 0.852049 20.7674 205 205 205
4.26062 0.866221 20.7664 209 209 209
4.26042 0.886273 20.7649 207 207 207
4.26287 0.898243 20.7767 209 209 209
4.26251 0.926597 20.7746 205 205 205
4.26238 0.938009 20.7738 205 205 205
4.262 0.97224 20.7713 200 200 200
4.26187 0.983648 20.7705 199 199 199
4.26393 1.02992 20.7798 184 184 184
4.26359 1.06139 20.7775 179 179 179
4.26329 1.08698 20.7757 187 187 187
4.26286 1.12709 20.7728 196 196 196
4.26522 1.14473 20.7841 191 191 191
4.26226 1.17513 20.7691 194 194 194
4.26677 1.23366 20.7901 193 193 193
4.2663 1.27656 20.7871 190 190 190
4.26596 1.30492 20.7849 189 189 189
4.26896 1.32141 20.7706 197 197 197
4.26565 1.33363 20.7829 184 184 184
4.27382 1.35175 20.7937 186 186 186
4.27103 1.36787 20.7799 190 190 190
4.27392 1.39259 20.7648 198 198 198
4.26735 1.41142 20.7898 195 195 195
4.26447 1.43632 20.7754 194 194 194
4.26944 1.45502 20.7992 205 205 205
4.2725 1.46554 20.7852 198 198 198
4.26911 1.48375 20.7972 204 204 204
4.27211 1.49977 20.7827 197 197 197
4.26879 1.51211 20.795 193 193 193
4.27159 1.54541 20.7793 195 195 195
4.27328 1.57386 20.8157 203 203 203
4.27053 1.58709 20.802 216 216 216
4.27618 1.59849 20.8006 207 207 207
4.27566 1.64416 20.7972 210 210 210
4.27231 1.65936 20.8092 208 208 208
4.27514 1.68982 20.7938 202 202 202
4.27006 1.70529 20.7974 205 205 205
4.27794 1.72299 20.7781 199 199 199
4.27418 1.77523 20.7873 203 203 203
4.27724 1.78552 20.7733 201 201 201
4.2764 1.80779 20.7976 203 203 203
4.27944 1.82083 20.7833 200 200 200
4.27293 1.83453 20.8088 211 211 211
4.28136 1.88175 20.7913 207 207 207
4.27644 1.8995 20.7862 199 199 199
4.27738 1.95419 20.799 202 202 202
4.27725 1.9656 20.7982 223 223 223
4.28033 1.99962 20.8126 214 214 214
4.28252 2.01121 20.7941 200 200 200
4.27303 2.05821 20.8045 201 201 201
4.28441 2.07522 20.802 203 203 203
4.27741 2.13479 20.8239 212 212 212
4.28048 2.14487 20.8098 217 217 217
4.28257 2.19187 20.819 202 202 202
4.28811 2.21465 20.8166 199 199 199
4.28426 2.24896 20.7969 195 195 195
4.28573 2.27453 20.8033 189 189 189
4.28326 2.36739 20.8181 184 184 184
4.28632 2.38006 20.8036 184 184 184
4.28203 2.43027 20.8393 181 181 181
4.28584 2.45391 20.8282 171 171 171
4.2878 2.48431 20.8083 173 173 173
4.28388 2.50315 20.8462 177 177 177
4.28683 2.52168 20.8316 171 171 171
4.28966 2.55985 20.8149 171 171 171
4.28954 2.57128 20.814 174 174 174
4.22823 -1.74851 20.6435 189 189 189
4.23158 -1.597 20.6587 194 194 194
4.22235 -2.42837 20.5616 200 200 200
4.22199 -2.39433 20.5594 186 186 186
4.22277 -2.16447 20.6204 200 200 200
4.22639 -2.04762 20.638 195 195 195
4.22902 -1.82814 20.6488 187 187 187
4.22812 -1.73713 20.6428 186 186 186
4.23507 -1.45662 20.6746 193 193 193
4.25585 -0.430836 20.7051 185 185 185
4.25855 -0.209212 20.715 197 197 197
4.26184 -0.0442449 20.7288 204 204 204
4.26072 0.0524269 20.7222 204 204 204
4.26525 0.109594 20.7432 205 205 205
4.26464 0.166599 20.7392 207 207 207
4.26931 0.66316 20.7546 182 182 182
4.2844 1.61362 20.8114 216 216 216
4.29696 1.98672 20.8076 186 186 186
4.29617 2.05798 20.8021 187 187 187
4.29598 2.0751 20.8008 193 193 193
4.29918 2.2602 20.8119 183 183 183
4.29803 2.36847 20.8033 176 176 176
4.30249 2.4399 20.8232 180 180 180
4.30237 2.45407 20.822 172 172 172
4.30187 2.49978 20.8184 174 174 174
4.29244 3.29264 21.3988 127 127 127
4.23431 -3.67311 20.0477 108 108 108
4.23529 -2.5467 20.5675 175 175 175
4.22971 -2.50715 20.5408 183 183 183
4.23364 -2.41645 20.5598 176 176 176
4.23579 -2.33633 20.5719 163 163 163
4.2371 -2.19926 20.6339 194 194 194
4.2364 -2.131 20.6295 188 188 188
4.23807 -2.06985 20.6384 195 195 195
4.23784 -2.0471 20.6369 198 198 198
4.23972 -1.97129 20.644 180 180 180
4.23924 -1.93444 20.6419 196 196 196
4.24143 -1.90136 20.652 193 193 193
4.24037 -1.81627 20.647 190 190 190
4.24538 -1.78956 20.6694 180 180 180
4.24455 -1.72718 20.6658 197 197 197
4.23923 -1.70254 20.6395 186 186 186
4.24379 -1.66185 20.6617 189 189 189
4.24338 -1.63067 20.6599 194 194 194
4.24259 -1.55103 20.6546 189 189 189
4.242 -1.51145 20.6524 184 184 184
4.24653 -1.45617 20.6735 214 214 214
4.24994 -1.28688 20.6869 198 198 198
4.26038 -1.2013 20.6806 202 202 202
4.24869 -1.17894 20.6801 198 198 198
4.25709 -1.19076 20.6928 205 205 205
4.24823 -1.13341 20.6771 190 190 190
4.26643 -0.81673 20.705 188 188 188
4.26075 -0.77626 20.6777 207 207 207
4.26576 -0.765676 20.7018 195 195 195
4.26405 -0.603546 20.6909 193 193 193
4.26613 -0.549671 20.6995 207 207 207
4.27076 -0.277306 20.7187 183 183 183
4.2704 -0.243133 20.7163 192 192 192
4.27261 -0.209039 20.7264 198 198 198
4.27209 0.0640228 20.7203 187 187 187
4.27526 0.0946431 20.7347 194 194 194
4.27853 0.181096 20.7497 201 201 201
4.28171 0.589326 20.7587 189 189 189
4.28638 0.629878 20.781 186 186 186
4.28564 0.692479 20.7765 195 195 195
4.28574 0.69283 20.7765 187 187 187
4.28473 0.778235 20.7704 192 192 192
4.28437 0.806579 20.7684 191 191 191
4.28413 0.823511 20.7671 197 197 197
4.28657 0.841328 20.7785 196 196 196
4.28386 0.852204 20.7651 201 201 201
4.28334 0.897819 20.7618 191 191 191
4.28821 0.92454 20.7851 191 191 191
4.28714 1.01861 20.7783 181 181 181
4.28947 1.04207 20.7892 205 205 205
4.28928 1.05919 20.788 197 197 197
4.29068 1.16244 20.793 184 184 184
4.29055 1.17386 20.7922 186 186 186
4.29246 1.23445 20.8004 195 195 195
4.29198 1.27736 20.7973 191 191 191
4.28926 1.28799 20.7839 178 178 178
4.28907 1.30529 20.7827 190 190 190
4.29385 1.34079 20.8052 192 192 192
4.29275 1.43804 20.7982 194 194 194
4.29515 1.45586 20.8095 195 195 195
4.29502 1.46729 20.8086 185 185 185
4.29463 1.50155 20.8061 191 191 191
4.30085 1.51111 20.7789 184 184 184
4.29468 1.54534 20.777 187 187 187
4.30211 1.62887 20.7828 183 183 183
4.29877 1.64406 20.7948 186 186 186
4.30403 1.68968 20.7908 187 187 187
4.30359 1.72942 20.7877 184 184 184
4.29919 1.78976 20.8224 191 191 191
4.3053 1.8076 20.7946 178 178 178
4.30182 1.83708 20.8055 186 186 186
4.30558 1.93846 20.7931 182 182 182
4.30851 1.98937 20.806 182 182 182
4.30732 2.09761 20.7976 182 182 182
4.30882 2.11945 20.8045 187 187 187
4.31113 2.22853 20.8129 189 189 189
4.31236 2.27604 20.8177 182 182 182
4.30987 2.33998 20.8045 175 175 175
4.3121 2.38115 20.8138 173 173 173
4.31172 2.41542 20.8111 171 171 171
4.31408 2.43972 20.822 177 177 177
4.23102 -2.79351 20.4344 132 132 132
4.24538 -3.67535 20.0472 103 103 103
4.24941 -2.82835 20.4097 103 103 103
4.24845 -2.49669 20.5761 181 181 181
4.25213 -2.48052 20.5668 192 192 192
4.24772 -2.42857 20.5718 190 190 190
4.24989 -2.39584 20.5819 186 186 186
4.2489 -2.23285 20.6351 184 184 184
4.25109 -2.19994 20.6453 189 189 189
4.25086 -2.17717 20.6438 189 189 189
4.2523 -2.14563 20.6498 199 199 199
4.25039 -2.13164 20.6408 192 192 192
4.25526 -2.11123 20.6642 188 188 188
4.25196 -2.05909 20.649 198 198 198
4.26027 -2.00056 20.6318 195 195 195
4.25397 -1.98596 20.656 189 189 189
4.25386 -1.97458 20.6552 183 183 183
4.2536 -1.96048 20.6546 186 186 186
4.26156 -1.87656 20.636 187 187 187
4.25487 -1.84498 20.6596 186 186 186
4.25646 -1.77223 20.6677 184 184 184
4.26235 -1.72432 20.6388 187 187 187
4.26201 -1.69022 20.6366 186 186 186
4.25895 -1.70276 20.6503 185 185 185
4.26162 -1.64346 20.6632 184 184 184
4.26629 -1.62973 20.6578 201 201 201
4.26289 -1.6081 20.6692 186 186 186
4.26479 -1.49918 20.6495 184 184 184
4.26359 -1.48558 20.6987 194 194 194
4.26468 -1.48781 20.6488 190 190 190
4.26153 -1.47156 20.6601 195 195 195
4.26946 -1.45529 20.6713 200 200 200
4.26411 -1.43098 20.645 195 195 195
4.26842 -1.37018 20.6661 190 190 190
4.27043 -1.29673 20.6731 195 195 195
4.27031 -1.28535 20.6723 204 204 204
4.2702 -1.27398 20.6716 191 191 191
4.27185 -1.2009 20.6795 192 192 192
4.27185 -1.18361 20.6779 189 189 189
4.27607 -1.11106 20.6982 193 193 193
4.27482 -1.0031 20.6914 187 187 187
4.2779 -0.816385 20.7039 192 192 192
4.27745 -0.779474 20.7015 190 190 190
4.27732 -0.75945 20.7 197 197 197
4.27721 -0.748064 20.6992 192 192 192
4.28158 -0.686349 20.7202 207 207 207
4.2755 -0.594606 20.6891 199 199 199
4.28052 -0.58381 20.7132 202 202 202
4.28017 -0.549639 20.7109 199 199 199
4.27982 -0.515474 20.7085 210 210 210
4.2797 -0.504086 20.7077 193 193 193
4.28162 -0.453254 20.717 192 192 192
4.28396 -0.430675 20.7279 188 188 188
4.28552 -0.288185 20.7053 197 197 197
4.28212 -0.265657 20.7168 186 186 186
4.282 -0.254267 20.716 192 192 192
4.28446 -0.242974 20.7277 191 191 191
4.28519 -0.0779805 20.7289 191 191 191
4.28923 0.0187825 20.7474 193 193 193
4.28887 0.0529889 20.745 194 194 194
4.29084 0.110097 20.7535 195 195 195
4.28752 0.178371 20.7362 201 201 201
4.29485 0.266868 20.742 190 190 190
4.29386 0.532426 20.7616 194 194 194
4.29608 0.56113 20.7722 189 189 189
4.2936 0.561112 20.7595 187 187 187
4.29594 0.578421 20.7709 186 186 186
4.30145 0.601298 20.7687 195 195 195
4.29804 0.618576 20.7806 185 185 185
4.30424 0.629288 20.7536 184 184 184
4.30095 0.641046 20.7659 184 184 184
4.29753 0.664229 20.7774 183 183 183
4.30373 0.674879 20.7504 184 184 184
4.29726 0.692933 20.7753 196 196 196
4.30024 0.706707 20.7612 192 192 192
4.29689 0.721283 20.7733 191 191 191
4.29925 0.73869 20.7847 197 197 197
4.30448 0.790274 20.7804 192 192 192
4.30108 0.807683 20.7923 186 186 186
4.30726 0.824028 20.7648 195 195 195
4.3069 0.852356 20.7628 195 195 195
4.3035 0.869788 20.7747 194 194 194
4.31146 0.910494 20.7838 195 195 195
4.29993 0.910427 20.785 194 194 194
4.29935 0.955718 20.7816 188 188 188
4.31094 0.956137 20.7805 190 190 190
4.30816 0.969705 20.7669 194 194 194
4.30994 1.04152 20.7743 192 192 192
4.30976 1.05568 20.7732 193 193 193
4.30578 1.12754 20.7812 210 210 210
4.30821 1.14554 20.7926 189 189 189
4.30808 1.15695 20.7918 183 183 183
4.30526 1.17317 20.7779 184 184 184
4.31346 1.19121 20.7887 185 185 185
4.31333 1.20262 20.7878 181 181 181
4.31246 1.2766 20.7824 191 191 191
4.31233 1.288 20.7816 185 185 185
4.31438 1.3372 20.7905 191 191 191
4.31086 1.36952 20.8015 189 189 189
4.31617 1.40928 20.7978 184 184 184
4.31565 1.45493 20.7945 191 191 191
4.31235 1.46725 20.8068 190 190 190
4.31512 1.50058 20.7911 183 183 183
4.31483 1.52616 20.7892 182 182 182
4.31467 1.54033 20.788 182 182 182
4.3191 1.61072 20.8081 184 184 184
4.3161 1.64398 20.793 179 179 179
4.31855 1.65915 20.8044 182 182 182
4.31803 1.70481 20.8011 178 178 178
4.31736 1.76463 20.7965 178 178 178
4.31723 1.77604 20.7957 179 179 179
4.31919 1.8342 20.804 178 178 178
4.32085 1.92076 20.8099 181 181 181
4.32061 1.94084 20.8085 178 178 178
4.32034 1.96643 20.8065 188 188 188
4.32271 1.9877 20.8177 183 183 183
4.32439 2.07439 20.8236 182 182 182
4.32361 2.14569 20.8181 176 176 176
4.3231 2.19138 20.8146 179 179 179
4.3262 2.22926 20.8286 176 176 176
4.32508 2.24983 20.8228 176 176 176
4.32757 2.26261 20.8346 178 178 178
4.32744 2.27679 20.8334 176 176 176
4.32669 2.34262 20.8284 172 172 172
4.32643 2.36823 20.8263 175 175 175
4.3263 2.38241 20.8251 172 172 172
4.32954 2.41084 20.8397 173 173 173
4.32829 2.441 20.8333 168 168 168
4.33054 2.47677 20.8433 172 172 172
4.31285 2.97 21.4509 171 171 171
4.32091 3.24881 21.4829 163 163 163
4.26414 -2.5367 20.5399 189 189 189
4.2611 -2.54975 20.5535 216 216 216
4.26231 -2.17662 20.6427 186 186 186
4.32387 1.28801 20.7803 185 185 185
4.33168 1.98364 20.8042 181 181 181
4.33569 2.09987 20.8203 175 175 175
4.33827 2.34246 20.8272 177 177 177
4.26763 -2.39203 20.5551 183 183 183
4.27763 -1.61789 20.6559 188 188 188
4.28411 -1.26287 20.6821 181 181 181
4.28331 -1.18321 20.6768 195 195 195
4.28888 -0.753223 20.6981 188 188 188
4.29224 -0.60628 20.7137 194 194 194
4.29634 -0.50428 20.7316 191 191 191
4.29545 -0.430389 20.7268 195 195 195
4.31911 0.792665 20.7659 194 194 194
4.32263 0.938904 20.7805 189 189 189
4.3225 0.950313 20.7797 187 187 187
4.32177 1.01599 20.775 186 186 186
4.32439 1.24238 20.7837 187 187 187
4.33144 1.54216 20.812 185 185 185
4.33118 1.565 20.8103 185 185 185
4.33092 1.58783 20.8086 184 184 184
4.33079 1.59925 20.8077 182 182 182
4.33008 1.66185 20.8029 181 181 181
4.33585 2.08294 20.8218 177 177 177
4.33929 2.25102 20.8342 174 174 174
4.35262 2.58753 20.8315 74 74 74
4.27623 -2.5755 20.5407 112 112 112
4.27294 -2.42605 20.5821 194 194 194
4.27916 -2.40279 20.5548 188 188 188
4.27904 -2.39145 20.5541 182 182 182
4.28547 -2.18961 20.6411 184 184 184
4.27632 -2.17728 20.654 182 182 182
4.28759 -1.93345 20.6499 175 175 175
4.28735 -1.9107 20.6484 180 180 180
4.28724 -1.89933 20.6477 180 180 180
4.28712 -1.88795 20.6469 180 180 180
4.28826 -1.76978 20.652 189 189 189
4.28558 -1.75745 20.6389 187 187 187
4.28792 -1.73567 20.6498 178 178 178
4.28803 -1.74704 20.6505 179 179 179
4.28908 -1.61742 20.6548 193 193 193
4.28862 -1.57194 20.6518 193 193 193
4.28821 -1.54079 20.6499 195 195 195
4.29273 -1.47124 20.6698 185 185 185
4.29638 -1.34212 20.6864 184 184 184
4.29592 -1.29659 20.6833 185 185 185
4.2958 -1.28521 20.6826 187 187 187
4.29534 -1.23969 20.6795 181 181 181
4.295 -1.22284 20.6788 187 187 187
4.29488 -1.21146 20.6781 197 197 197
4.29465 -1.18871 20.6765 198 198 198
4.29958 -1.16721 20.6998 187 187 187
4.29643 -1.10969 20.6836 192 192 192
4.29877 -1.08751 20.6945 181 181 181
4.30313 -0.549032 20.7086 191 191 191
4.31269 -0.19678 20.7217 189 189 189
4.30902 -0.157272 20.7322 181 181 181
4.3089 -0.145878 20.7314 189 189 189
4.31174 0.0647989 20.7419 195 195 195
4.31633 0.122007 20.7629 195 195 195
4.3231 0.442052 20.7908 192 192 192
4.32285 0.470775 20.7887 182 182 182
4.32852 0.515533 20.7593 189 189 189
4.32826 0.544211 20.7573 182 182 182
4.32738 0.618117 20.7521 194 194 194
4.32725 0.629512 20.7513 190 190 190
4.32674 0.675089 20.748 186 186 186
4.33083 0.77271 20.7661 192 192 192
4.33044 0.806911 20.7637 196 196 196
4.33031 0.818312 20.7629 184 184 184
4.33325 1.0188 20.7736 187 187 187
4.33234 1.09861 20.7678 184 184 184
4.33605 1.23099 20.7833 191 191 191
4.33592 1.24239 20.7825 191 191 191
4.3357 1.26244 20.781 185 185 185
4.33802 1.2888 20.7917 184 184 184
4.33785 1.30297 20.7906 188 188 188
4.33912 1.42066 20.7945 182 182 182
4.34135 1.45577 20.8046 188 188 188
4.3386 1.4663 20.7912 187 187 187
4.33821 1.50052 20.7887 187 187 187
4.33807 1.51193 20.7878 186 186 186
4.34247 1.58779 20.8073 187 187 187
4.34215 1.61613 20.805 186 186 186
4.34195 1.63345 20.8039 182 182 182
4.34182 1.64486 20.8031 178 178 178
4.34163 1.66179 20.8016 181 181 181
4.34405 1.68012 20.8131 178 178 178
4.34085 1.73026 20.7966 178 178 178
4.34346 1.96621 20.804 189 189 189
4.35017 2.0754 20.8337 176 176 176
4.34727 2.09974 20.819 179 179 179
4.35019 2.11575 20.8047 183 183 183
4.34691 2.1285 20.8171 172 172 172
4.35287 2.3094 20.8411 172 172 172
4.35273 2.32633 20.8395 173 173 173
4.35398 2.45353 20.8424 172 172 172
4.35373 2.4764 20.8407 167 167 167
4.36155 2.50075 20.8203 166 166 166
4.34388 3.0693 21.4808 170 170 170
4.33744 1.11138 20.7921 182 182 182
4.34901 1.94021 20.8315 176 176 176
4.35474 2.38491 20.8478 172 172 172
4.35448 2.40778 20.846 169 169 169
4.28756 -2.59218 20.5413 93 93 93
4.2913 -2.47025 20.558 185 185 185
4.29605 -2.43893 20.5804 198 198 198
4.29593 -2.42758 20.5797 192 192 192
4.29312 -2.40354 20.566 177 177 177
4.293 -2.3922 20.5652 179 179 179
4.29544 -2.38217 20.5768 181 181 181
4.29715 -2.21181 20.6414 193 193 193
4.29706 -2.19177 20.6399 185 185 185
4.29694 -2.1804 20.6391 182 182 182
4.29803 -2.06239 20.6444 182 182 182
4.30001 -2.00663 20.653 187 187 187
4.29966 -1.97249 20.6508 177 177 177
4.29954 -1.96112 20.6501 177 177 177
4.29868 -1.89881 20.6466 173 173 173
4.3009 -1.86573 20.6567 179 179 179
4.30079 -1.85435 20.656 186 186 186
4.3024 -1.78164 20.664 181 181 181
4.30228 -1.77026 20.6633 187 187 187
4.30193 -1.73613 20.6611 184 184 184
4.30182 -1.72476 20.6603 188 188 188
4.30405 -1.69156 20.6705 188 188 188
4.30359 -1.64604 20.6674 182 182 182
4.30441 -1.49354 20.6702 191 191 191
4.30676 -1.47159 20.6811 185 185 185
4.30819 -1.35854 20.6859 191 191 191
4.30784 -1.34169 20.6853 188 188 188
4.30772 -1.33031 20.6845 190 190 190
4.3076 -1.31893 20.6837 190 190 190
4.30737 -1.29617 20.6822 185 185 185
4.30726 -1.28479 20.6814 184 184 184
4.30973 -1.2741 20.6931 194 194 194
4.3095 -1.25133 20.6916 192 192 192
4.30892 -1.21171 20.6894 200 200 200
4.31139 -1.20097 20.701 189 189 189
4.31442 -1.18874 20.6873 190 190 190
4.31035 -1.0985 20.6941 186 186 186
4.3209 -1.02435 20.6884 185 185 185
4.31264 -0.832222 20.7013 186 186 186
4.31845 -0.657036 20.727 190 190 190
4.32225 -0.667091 20.6893 189 189 189
4.32576 -0.531543 20.7055 183 183 183
4.32929 -0.372593 20.7194 195 195 195
4.3229 -0.361806 20.7447 186 186 186
4.32555 -0.315934 20.7285 197 197 197
4.3284 -0.298774 20.7146 196 196 196
4.32792 -0.253243 20.7114 195 195 195
4.3278 -0.241861 20.7106 185 185 185
4.32756 -0.2191 20.7091 194 194 194
4.32719 -0.184961 20.7067 191 191 191
4.33163 -0.122621 20.7275 198 198 198
4.3315 -0.111233 20.7267 186 186 186
4.3346 0.0766012 20.7388 192 192 192
4.33359 0.161854 20.7329 195 195 195
4.33349 0.179116 20.7316 188 188 188
4.33719 0.310312 20.7475 184 184 184
4.33707 0.321706 20.7467 183 183 183
4.34154 0.384722 20.7674 198 198 198
4.34078 0.453141 20.7625 186 186 186
4.34027 0.498743 20.7593 184 184 184
4.33989 0.53294 20.7569 189 189 189
4.33977 0.544338 20.7561 187 187 187
4.3436 0.664655 20.7727 185 185 185
4.34309 0.71027 20.7694 186 186 186
4.3426 0.749997 20.7666 183 183 183
4.34747 0.779301 20.7895 189 189 189
4.3447 0.796099 20.7758 194 194 194
4.34457 0.807504 20.775 193 193 193
4.3418 0.82427 20.7612 187 187 187
4.34663 0.865418 20.7833 193 193 193
4.34554 0.950429 20.7773 192 192 192
4.35011 1.01458 20.7979 193 193 193
4.34735 1.02536 20.7845 190 190 190
4.34975 1.04294 20.7958 188 188 188
4.34962 1.05435 20.7949 186 186 186
4.34949 1.06576 20.7941 182 182 182
4.34932 1.08306 20.7929 187 187 187
4.3491 1.1 20.7916 182 182 182
4.35108 1.15776 20.8001 191 191 191
4.35068 1.192 20.7976 189 189 189
4.35283 1.23251 20.8072 191 191 191
4.35253 1.25811 20.8052 186 186 186
4.35231 1.27818 20.8038 192 192 192
4.35218 1.28959 20.803 192 192 192
4.35178 1.32383 20.8005 175 175 175
4.36016 1.36864 20.7834 183 183 183
4.35329 1.42151 20.8059 178 178 178
4.35401 1.43505 20.809 182 182 182
4.35523 1.48223 20.8139 177 177 177
4.35487 1.51373 20.8117 185 185 185
4.35768 1.54113 20.7963 190 190 190
4.36264 1.6123 20.7903 188 188 188
4.35613 1.63439 20.8153 182 182 182
4.356 1.6458 20.8144 183 183 183
4.36454 1.67622 20.7983 179 179 179
4.3608 1.7312 20.8073 180 180 180
4.36773 1.86329 20.8091 181 181 181
4.36423 1.89597 20.8201 180 180 180
4.3608 1.92277 20.8313 177 177 177
4.36058 1.94011 20.8302 175 175 175
4.36359 1.95031 20.8162 179 179 179
4.3704 2.09948 20.8164 180 180 180
4.37017 2.11682 20.8153 176 176 176
4.37176 2.21496 20.8203 172 172 172
4.3725 2.23049 20.8231 173 173 173
4.37376 2.27616 20.8281 174 174 174
4.37062 2.31772 20.8124 169 169 169
4.37526 2.38314 20.8325 171 171 171
4.37476 2.42884 20.829 169 169 169
4.37464 2.44027 20.8281 168 168 168
4.37451 2.45169 20.8272 167 167 167
4.35902 3.12473 21.4325 172 172 172
4.35877 3.14546 21.431 167 167 167
4.36454 3.17447 21.4275 157 157 157
4.37023 3.19222 21.4258 160 160 160
4.36406 3.21872 21.4242 163 163 163
4.36448 3.22919 21.3954 151 151 151
4.36677 3.281 21.4044 138 138 138
4.31725 -1.62963 20.6781 186 186 186
4.36332 1.32383 20.7992 181 181 181
4.37119 3.10371 21.4324 164 164 164
4.31493 -1.86625 20.668 174 174 174
4.31976 -1.38679 20.6871 189 189 189
4.34698 0.00293283 20.7426 188 188 188
4.34636 0.059898 20.7386 186 186 186
4.3533 0.367948 20.7673 189 189 189
4.36216 0.968979 20.7999 184 184 184
4.36102 1.0658 20.7929 184 184 184
4.3711 1.1913 20.7825 190 190 190
4.37671 1.62188 20.801 180 180 180
4.38611 2.20472 20.8324 173 173 173
4.38509 2.2961 20.8254 171 171 171
4.38899 2.43011 20.8402 173 173 173
4.38825 2.49869 20.8349 157 157 157
4.31599 -2.59327 20.5623 91 91 91
4.31517 -2.5425 20.5597 176 176 176
4.31761 -2.53256 20.5713 180 180 180
4.31934 -2.46882 20.5798 178 178 178
4.31593 -2.40238 20.5637 179 179 179
4.32216 -2.15774 20.6478 181 181 181
4.31921 -2.12243 20.6331 180 180 180
4.32268 -2.13357 20.6505 191 191 191
4.32361 -2.07383 20.6552 185 185 185
4.32302 -2.01694 20.6515 187 187 187
4.32549 -2.00668 20.6632 174 174 174
4.31627 -1.97415 20.6745 176 176 176
4.32489 -1.94978 20.6594 169 169 169
4.32501 -1.96115 20.6602 173 173 173
4.32638 -1.86574 20.6668 178 178 178
4.32564 -1.81478 20.664 183 183 183
4.3306 -1.794 20.6873 177 177 177
4.32742 -1.73611 20.6712 187 187 187
4.3273 -1.72473 20.6704 191 191 191
4.32459 -1.71241 20.6573 191 191 191
4.32695 -1.6906 20.6682 197 197 197
4.32907 -1.64599 20.6776 186 186 186
4.3287 -1.62916 20.6769 174 174 174
4.33484 -1.61554 20.6502 188 188 188
4.32979 -1.55371 20.6798 186 186 186
4.32967 -1.4707 20.6788 188 188 188
4.33215 -1.46011 20.6904 185 185 185
4.33493 -1.42497 20.6752 188 188 188
4.33983 -1.36242 20.6709 186 186 186
4.33329 -1.28305 20.6662 195 195 195
4.33253 -1.26188 20.6901 187 187 187
4.33814 -1.25029 20.6887 186 186 186
4.34069 -1.20983 20.6735 191 191 191
4.34057 -1.19846 20.6727 182 182 182
4.33958 -1.15442 20.6951 188 188 188
4.33894 -1.14446 20.7198 187 187 187
4.34518 -1.12556 20.6921 195 195 195
4.34528 -0.677815 20.6878 190 190 190
4.35693 -0.332682 20.7395 191 191 191
4.35609 -0.25293 20.734 193 193 193
4.35536 -0.184593 20.7293 187 187 187
4.35785 0.0601039 20.7374 181 181 181
4.36493 0.356701 20.7669 187 187 187
4.3634 0.487614 20.7577 190 190 190
4.36662 0.664866 20.7702 184 184 184
4.3701 0.819583 20.7842 188 188 188
4.36982 0.84828 20.7822 184 184 184
4.37115 0.884704 20.788 183 183 183
4.37746 0.911424 20.7896 192 192 192
4.37369 0.969034 20.7987 187 187 187
4.37615 1.02548 20.7814 191 191 191
4.37831 1.06586 20.791 189 189 189
4.37502 1.08381 20.803 185 185 185
4.37479 1.10074 20.8017 185 185 185
4.38042 1.11217 20.8002 185 185 185
4.38337 1.12879 20.7858 179 179 179
4.37968 1.17474 20.7956 180 180 180
4.38262 1.19132 20.7813 188 188 188
4.3759 1.23253 20.8046 190 190 190
4.37735 1.25955 20.811 180 180 180
4.38101 1.2896 20.7998 186 186 186
4.37772 1.30456 20.8119 182 182 182
4.37485 1.32383 20.798 180 180 180
4.37472 1.33524 20.7971 181 181 181
4.38247 1.39312 20.8049 186 186 186
4.38213 1.42146 20.8027 186 186 186
4.37885 1.43651 20.8147 184 184 184
4.37809 1.50225 20.81 187 187 187
4.38061 1.51458 20.8217 179 179 179
4.38375 1.55149 20.7797 179 179 179
4.38348 1.57429 20.778 176 176 176
4.3824 1.58957 20.8287 177 177 177
4.38539 1.6 20.8146 183 183 183
4.3852 1.61693 20.8131 183 183 183
4.385 1.63425 20.8121 182 182 182
4.39195 1.76355 20.8143 183 183 183
4.38637 1.94107 20.8402 177 177 177
4.39405 2.05081 20.8175 174 174 174
4.3953 2.09823 20.8224 173 173 173
4.39741 2.23016 20.829 173 173 173
4.39704 2.26168 20.8267 173 173 173
4.39615 2.34161 20.8205 170 170 170
4.40058 2.42992 20.8388 168 168 168
4.38582 3.0997 21.4452 145 145 145
4.38286 3.12414 21.4295 156 156 156
4.38261 3.14486 21.428 161 161 161
4.3886 3.1877 21.3961 148 148 148
4.39201 1.95245 20.8387 177 177 177
4.33334 -2.57515 20.5349 106 106 106
4.33122 -2.49931 20.5803 177 177 177
4.33066 -2.47121 20.5791 178 178 178
4.33418 -2.33495 20.5952 149 149 149
4.34341 -2.2464 20.6389 175 175 175
4.33445 -2.23684 20.6517 186 186 186
4.33955 -2.17966 20.6475 185 185 185
4.34243 -2.15544 20.633 188 188 188
4.33582 -2.12423 20.6568 187 187 187
4.33907 -2.13416 20.6445 186 186 186
4.33777 -2.08582 20.6672 184 184 184
4.3443 -2.0884 20.641 182 182 182
4.33765 -2.07444 20.6664 189 189 189
4.34354 -2.0375 20.6383 187 187 187
4.33481 -2.05054 20.6526 185 185 185
4.33681 -1.99476 20.6612 179 179 179
4.33917 -1.9731 20.6722 182 182 182
4.33842 -1.92212 20.6694 182 182 182
4.3469 -1.88643 20.6536 178 178 178
4.34054 -1.87764 20.6788 181 181 181
4.34031 -1.85487 20.6773 177 177 177
4.34282 -1.82716 20.6873 177 177 177
4.3477 -1.73417 20.6564 188 188 188
4.34983 -1.68963 20.6658 189 189 189
4.35256 -1.70193 20.679 182 182 182
4.34688 -1.65461 20.6512 188 188 188
4.34936 -1.64414 20.6628 185 185 185
4.35138 -1.58816 20.6714 184 184 184
4.35103 -1.55404 20.6692 188 188 188
4.34467 -1.54481 20.6944 185 185 185
4.3528 -1.49254 20.6779 182 182 182
4.35245 -1.45842 20.6757 199 199 199
4.35233 -1.44705 20.6749 191 191 191
4.35411 -1.38548 20.6836 183 183 183
4.35579 -1.29518 20.69 194 194 194
4.35306 -1.28311 20.6768 191 191 191
4.35555 -1.27242 20.6884 185 185 185
4.35793 -1.25034 20.6993 185 185 185
4.35395 -1.21167 20.6805 186 186 186
4.35723 -1.19934 20.6964 182 182 182
4.35676 -1.15382 20.6933 190 190 190
4.35652 -1.12242 20.691 196 196 196
4.35594 -1.07418 20.6879 190 190 190
4.36094 -1.0612 20.712 192 192 192
4.36581 -0.559438 20.7285 190 190 190
4.36569 -0.548048 20.7277 188 188 188
4.36533 -0.513881 20.7253 193 193 193
4.36841 -0.332411 20.7383 194 194 194
4.37007 -0.241378 20.7445 184 184 184
4.37262 -0.224182 20.7555 190 190 190
4.37549 -0.0134651 20.7661 184 184 184
4.37832 0.00351783 20.752 195 195 195
4.38093 0.0491297 20.7357 189 189 189
4.37459 0.0604691 20.7611 184 184 184
4.37431 0.0773872 20.7601 186 186 186
4.37419 0.0887875 20.7593 190 190 190
4.37707 0.117454 20.7441 192 192 192
4.37991 0.134333 20.7299 190 190 190
4.38276 0.339255 20.7407 183 183 183
4.37642 0.356858 20.7656 185 185 185
4.38271 0.386439 20.7671 186 186 186
4.37579 0.413854 20.7616 197 197 197
4.3869 0.442309 20.7584 188 188 188
4.38394 0.518325 20.7619 185 185 185
4.38575 0.54484 20.7512 196 196 196
4.39001 0.630882 20.7701 190 190 190
4.38977 0.647797 20.7689 192 192 192
4.38918 0.704964 20.7649 189 189 189
4.38237 0.757108 20.7875 187 187 187
4.39072 0.802313 20.7704 199 199 199
4.39048 0.819226 20.7692 201 201 201
4.39057 0.819588 20.7691 193 193 193
4.39447 0.93433 20.7861 183 183 183
4.39395 0.979943 20.7828 183 183 183
4.39506 1.11153 20.7858 184 184 184
4.39484 1.12845 20.7845 185 185 185
4.39467 1.14574 20.7833 190 190 190
4.39454 1.15714 20.7825 189 189 189
4.39631 1.2318 20.7895 184 184 184
4.39883 1.24396 20.8012 175 175 175
4.39866 1.25813 20.8001 190 190 190
4.39844 1.27819 20.7987 199 199 199
4.39791 1.32382 20.7954 188 188 188
4.39778 1.33522 20.7946 184 184 184
4.39979 1.38995 20.8029 180 180 180
4.39957 1.41002 20.8016 182 182 182
4.40182 1.44512 20.8116 175 175 175
4.40169 1.45653 20.8108 180 180 180
4.40156 1.46794 20.8099 183 183 183
4.40044 1.56474 20.8026 175 175 175
4.40374 1.58699 20.8179 185 185 185
4.40271 1.59993 20.8126 182 182 182
4.40218 1.64557 20.8092 174 174 174
4.40291 1.65915 20.8124 175 175 175
4.40402 1.71782 20.8164 173 173 173
4.40352 1.76072 20.8133 179 179 179
4.40561 1.81297 20.8218 177 177 177
4.41375 1.87473 20.8034 172 172 172
4.40705 1.92236 20.8261 170 170 170
4.40571 2.04202 20.8167 171 171 171
4.41083 2.05907 20.8412 166 166 166
4.4089 2.07426 20.8314 171 171 171
4.41232 2.16595 20.8456 173 173 173
4.41191 2.20574 20.8423 169 169 169
4.41356 2.29852 20.8479 168 168 168
4.41265 2.38403 20.841 168 168 168
4.41253 2.39546 20.8401 167 167 167
4.42386 2.41538 20.8373 152 152 152
4.398 3.08149 21.4447 170 170 170
4.40062 3.09515 21.4571 161 161 161
4.40874 3.19606 21.4341 162 162 162
4.40061 0.710759 20.7632 191 191 191
4.40705 1.06871 20.7875 179 179 179
4.40671 1.10016 20.7853 184 184 184
4.36662 -1.47014 20.6876 200 200 200
4.36985 -1.29545 20.7012 188 188 188
4.3695 -1.2613 20.6989 180 180 180
4.36938 -1.24992 20.6981 181 181 181
4.3688 -1.21031 20.6959 186 186 186
4.39903 0.391359 20.7607 182 182 182
4.405 0.791498 20.7825 192 192 192
4.40487 0.802901 20.7817 197 197 197
4.40772 1.01482 20.7915 187 187 187
4.40983 1.2896 20.7966 181 181 181
4.41395 1.39354 20.8139 176 176 176
4.41362 1.42227 20.812 187 187 187
4.41309 1.46791 20.8086 182 182 182
4.41691 1.60084 20.8239 180 180 180
4.42264 2.03885 20.8412 164 164 164
4.3587 -2.12313 20.6544 177 177 177
4.36765 -2.13278 20.6415 179 179 179
4.36625 -2.07308 20.6634 188 188 188
4.36302 -2.06311 20.6757 184 184 184
4.36888 -2.02618 20.6475 183 183 183
4.36923 -1.9096 20.6485 177 177 177
4.37641 -1.78333 20.6817 181 181 181
4.37319 -1.72549 20.6656 183 183 183
4.37676 -1.57671 20.6807 180 180 180
4.3758 -1.50301 20.6763 192 192 192
4.38048 -1.23265 20.6962 191 191 191
4.37966 -1.15301 20.6909 180 180 180
4.38216 -1.12496 20.7009 180 180 180
4.38373 -1.04039 20.7081 178 178 178
4.38221 -0.909739 20.6996 186 186 186
4.39602 -0.660328 20.7069 185 185 185
4.40185 -0.240517 20.7283 192 192 192
4.40111 -0.172227 20.7236 188 188 188
4.40528 -0.0698182 20.7414 187 187 187
4.39819 0.003888 20.7626 184 184 184
4.40905 0.0610879 20.7574 192 192 192
4.40195 0.135015 20.7786 185 185 185
4.41301 0.631102 20.7676 192 192 192
4.41288 0.642497 20.7668 190 190 190
4.41262 0.665286 20.7651 177 177 177
4.41651 0.791582 20.7812 185 185 185
4.41638 0.802982 20.7804 190 190 190
4.41562 0.865493 20.7759 187 187 187
4.41512 0.905195 20.773 189 189 189
4.41496 0.922473 20.7718 184 184 184
4.42015 0.935031 20.796 176 176 176
4.41976 0.96925 20.7935 180 180 180
4.41963 0.980656 20.7927 184 184 184
4.41874 1.05459 20.7873 181 181 181
4.41809 1.11159 20.7832 182 182 182
4.42668 1.29117 20.8204 178 178 178
4.42082 1.33521 20.7919 184 184 184
4.42568 1.3766 20.814 179 179 179
4.42529 1.41083 20.8115 177 177 177
4.42364 1.55324 20.8008 174 174 174
4.42755 1.67793 20.8168 181 181 181
4.42993 1.70454 20.8274 180 180 180
4.42681 1.74325 20.8117 166 166 166
4.43546 1.75943 20.7967 170 170 170
4.43182 1.77411 20.8349 171 171 171
4.43043 1.89656 20.8254 171 171 171
4.43964 2.2767 20.8595 170 170 170
4.43557 3.17666 21.4458 162 162 162
4.435 3.23552 21.441 174 174 174
4.43459 3.28822 21.4363 110 110 110
4.42201 1.23257 20.7994 177 177 177
4.37322 -3.01823 20.3342 78 78 78
4.37063 -2.96458 20.382 86 86 86
4.37768 -2.539 20.5772 180 180 180
4.37708 -2.51959 20.5769 183 183 183
4.379 -2.48153 20.5874 176 176 176
4.37644 -2.46286 20.5734 177 177 177
4.37841 -2.40749 20.5821 181 181 181
4.37828 -2.39614 20.5813 177 177 177
4.3798 -2.33263 20.5904 130 130 130
4.37957 -2.1777 20.6433 179 179 179
4.38142 -2.11932 20.6521 175 175 175
4.38169 -2.1334 20.6527 178 178 178
4.38382 -2.08906 20.6621 187 187 187
4.38542 -2.01649 20.6703 177 177 177
4.38493 -1.97098 20.6673 185 185 185
4.38683 -1.90377 20.6753 173 173 173
4.38408 -1.89135 20.6621 177 177 177
4.38824 -1.79099 20.6802 178 178 178
4.38774 -1.76279 20.6789 181 181 181
4.38738 -1.72866 20.6767 186 186 186
4.38726 -1.71728 20.6759 181 181 181
4.3869 -1.68316 20.6737 185 185 185
4.38941 -1.6727 20.6853 189 189 189
4.38891 -1.6445 20.684 184 184 184
4.39142 -1.63401 20.6956 180 180 180
4.38832 -1.58761 20.6802 181 181 181
4.39046 -1.56026 20.6912 183 183 183
4.39047 -1.54295 20.6896 183 183 183
4.39344 -1.53051 20.6758 179 179 179
4.38998 -1.51474 20.6882 188 188 188
4.38986 -1.50336 20.6875 191 191 191
4.39283 -1.49095 20.6737 185 185 185
4.39202 -1.45865 20.6969 185 185 185
4.39667 -1.37331 20.691 181 181 181
4.39311 -1.32874 20.701 188 188 188
4.39608 -1.31643 20.6872 191 191 191
4.39287 -1.29733 20.6987 183 183 183
4.39836 -1.28301 20.6974 183 183 183
4.39812 -1.26025 20.6959 182 182 182
4.39252 -1.27184 20.6972 185 185 185
4.40073 -1.21389 20.6798 186 186 186
4.4039 -1.07453 20.7209 188 188 188
4.4016 -1.06125 20.6823 190 190 190
4.39518 -1.04001 20.7068 184 184 184
4.40603 -0.982731 20.7017 185 185 185
4.40064 -0.970333 20.6762 181 181 181
4.40463 -0.86352 20.6941 181 181 181
4.40658 -0.842271 20.7304 189 189 189
4.41379 -0.0810936 20.754 180 180 180
4.41675 -0.0695899 20.7401 181 181 181
4.41572 0.015608 20.7344 175 175 175
4.4204 0.0726875 20.7553 188 188 188
4.41899 0.192102 20.7471 179 179 179
4.42598 0.311765 20.7507 187 187 187
4.42239 0.357483 20.7606 191 191 191
4.42797 0.5967 20.7556 181 181 181
4.42475 0.614305 20.7675 182 182 182
4.43264 0.660353 20.7761 179 179 179
4.43684 0.791249 20.7661 179 179 179
4.43339 0.820017 20.7772 181 181 181
4.42772 0.820343 20.7778 187 187 187
4.43232 0.878057 20.7988 186 186 186
4.43822 0.899811 20.7708 173 173 173
4.4315 0.952381 20.7934 182 182 182
4.43114 0.980708 20.7914 178 178 178
4.43341 1.01554 20.8014 179 179 179
4.44196 1.03757 20.7859 178 178 178
4.43868 1.0553 20.7978 183 183 183
4.43546 1.06735 20.8102 194 194 194
4.43528 1.08152 20.8091 177 177 177
4.44123 1.10026 20.7814 176 176 176
4.43476 1.12716 20.8058 178 178 178
4.43454 1.14722 20.8044 179 179 179
4.44016 1.15864 20.8029 176 176 176
4.4366 1.1991 20.8131 182 182 182
4.44349 1.21113 20.7899 169 169 169
4.44196 1.23334 20.81 175 175 175
4.43821 1.29117 20.819 181 181 181
4.44548 1.34897 20.7966 165 165 165
4.4486 1.38797 20.8104 176 176 176
4.43953 1.40891 20.8229 176 176 176
4.44244 1.42221 20.8086 171 171 171
4.44265 1.43736 20.7814 171 171 171
4.45205 1.55503 20.8232 166 166 166
4.45139 1.61209 20.8189 168 168 168
4.44909 1.65523 20.8074 164 164 164
4.44877 1.68355 20.8051 167 167 167
4.45257 1.74415 20.8215 159 159 159
4.45236 1.76147 20.8204 166 166 166
4.4522 1.77563 20.8193 167 167 167
4.4509 1.81042 20.8124 158 158 158
4.45046 1.8948 20.8362 161 161 161
4.45302 1.93926 20.8195 158 158 158
4.45641 2.1184 20.8309 158 158 158
4.45817 2.20513 20.8367 146 146 146
4.45148 2.25366 20.8599 150 150 150
4.46201 2.35044 20.8506 101 101 101
4.44795 3.12927 21.448 139 139 139
4.45406 3.14303 21.4187 143 143 143
4.45067 3.17425 21.4301 165 165 165
4.45041 3.19215 21.4291 161 161 161
4.45585 3.25922 21.4222 174 174 174
4.45703 3.28655 21.4264 113 113 113
4.46186 1.7033 20.8107 155 155 155
4.39361 -2.17834 20.6544 174 174 174
4.39686 -2.01596 20.669 176 176 176
4.39673 -2.00458 20.6683 177 177 177
4.40286 -1.63353 20.6944 181 181 181
4.40891 -1.6199 20.6676 177 177 177
4.43552 0.209509 20.7697 176 176 176
4.45326 1.05471 20.7833 173 173 173
4.46086 1.3254 20.8138 166 166 166
4.46285 1.61794 20.8172 159 159 159
4.47105 3.19363 21.44 155 155 155
4.47051 3.25808 21.4343 179 179 179
4.40241 -2.4911 20.5843 178 178 178
4.40382 -2.40763 20.5919 180 180 180
4.40343 -2.37358 20.5897 173 173 173
4.40767 -2.17899 20.6655 176 176 176
4.40993 -2.14603 20.6757 173 173 173
4.40442 -2.12092 20.6495 175 175 175
4.40717 -2.13347 20.6626 178 178 178
4.40389 -2.09276 20.6482 176 176 176
4.40841 -2.02679 20.6685 178 178 178
4.41307 -1.97209 20.6896 177 177 177
4.41295 -1.9607 20.6889 172 172 172
4.41585 -1.90012 20.6468 162 162 162
4.41148 -1.82411 20.6799 177 177 177
4.416 -1.78378 20.7028 181 181 181
4.41625 -1.79789 20.7035 176 176 176
4.41313 -1.75138 20.6881 178 178 178
4.41781 -1.66307 20.6819 173 173 173
4.4237 -1.4565 20.6807 178 178 178
4.42224 -1.40313 20.7278 174 174 174
4.42756 -1.33882 20.698 179 179 179
4.42479 -1.32672 20.6849 178 178 178
4.42732 -1.31606 20.6965 174 174 174
4.42455 -1.29535 20.6825 173 173 173
4.42696 -1.28194 20.6942 174 174 174
4.42853 -1.18023 20.6998 173 173 173
4.4313 -1.19224 20.7129 173 173 173
4.43046 -1.11257 20.7076 173 173 173
4.43034 -1.1012 20.7068 177 177 177
4.43365 -0.943376 20.7218 181 181 181
4.44945 0.00484621 20.7825 174 174 174
4.44767 0.164472 20.7713 171 171 171
4.44969 0.215742 20.7803 177 177 177
4.45363 0.369518 20.769 173 173 173
4.46045 0.707035 20.7951 170 170 170
4.45688 0.747193 20.8055 171 171 171
4.46173 0.793833 20.8273 173 173 173
4.46133 0.888551 20.7689 167 167 167
4.46631 0.923864 20.7915 165 165 165
